x,y,z,classification,gpstime,scan_angle,intensity,number_of_returns,return_number,point_source_ID,edge_of_flight_line_flag,direction_of_scan_flag,user_data,red_channel,green_channel,blue_channel
531514.87,3144649.96,5.93,1,225648.353177,11,10,1,1,22,0,0,32,0,0,0
531515.41,3144649.76,6.00,1,225648.353191,11,11,1,1,22,0,0,32,0,0,0
531515.95,3144649.56,6.03,1,225648.353205,10,17,2,1,22,0,0,32,0,0,0
531515.26,3144649.70,1.62,1,225648.353205,10,0,2,2,22,0,0,32,0,0,0
531516.47,3144649.36,5.90,1,225648.353219,10,11,2,1,22,0,0,32,0,0,0
531515.79,3144649.50,1.55,2,225648.353219,10,8,2,2,22,0,0,32,0,0,0
531517.01,3144649.16,5.95,1,225648.353233,10,10,2,1,22,0,0,32,0,0,0
531516.34,3144649.30,1.60,2,225648.353233,10,114,2,2,22,0,0,32,0,0,0
531517.54,3144648.96,5.94,1,225648.353247,10,13,2,1,22,0,0,32,0,0,0
531516.86,3144649.10,1.53,2,225648.353247,10,630,2,2,22,0,0,32,0,0,0
531518.06,3144648.77,5.93,1,225648.353261,10,6,2,1,22,0,0,32,0,0,0
531517.40,3144648.90,1.59,2,225648.353261,10,472,2,2,22,0,0,32,0,0,0
531518.53,3144648.58,5.56,1,225648.353275,10,7,2,1,22,0,0,32,0,0,0
531517.92,3144648.70,1.53,2,225648.353275,10,535,2,2,22,0,0,32,0,0,0
531519.93,3144648.21,11.27,1,225648.353289,10,118,3,1,22,0,0,32,0,0,0
531519.00,3144648.39,5.14,1,225648.353289,10,3,3,2,22,0,0,32,0,0,0
531518.45,3144648.50,1.50,2,225648.353289,10,88,3,3,22,0,0,32,0,0,0
531520.37,3144648.03,10.72,1,225648.353303,10,108,2,1,22,0,0,32,0,0,0
531519.78,3144648.15,6.77,1,225648.353303,10,111,2,2,22,0,0,32,0,0,0
531520.81,3144647.85,10.08,1,225648.353317,10,140,1,1,22,0,0,32,0,0,0
531521.34,3144647.65,10.15,1,225648.353331,10,168,1,1,22,0,0,32,0,0,0
531521.81,3144647.46,9.75,1,225648.353345,10,153,1,1,22,0,0,32,0,0,0
531522.50,3144647.24,10.89,1,225648.353359,10,97,1,1,22,0,0,32,0,0,0
531523.13,3144647.02,11.60,1,225648.353373,10,118,3,1,22,0,0,32,0,0,0
531522.84,3144647.08,9.61,1,225648.353373,10,105,3,2,22,0,0,32,0,0,0
531521.64,3144647.31,1.37,2,225648.353373,10,7,3,3,22,0,0,32,0,0,0
531523.63,3144646.83,11.36,1,225648.353387,10,198,1,1,22,0,0,32,0,0,0
531524.11,3144646.64,11.03,1,225648.353401,10,183,1,1,22,0,0,32,0,0,0
531524.64,3144646.44,11.06,1,225648.353415,10,92,2,1,22,0,0,32,0,0,0
531524.29,3144646.51,8.59,1,225648.353415,10,124,2,2,22,0,0,32,0,0,0
531524.99,3144646.28,9.84,1,225648.353429,10,153,3,1,22,0,0,32,0,0,0
531524.42,3144646.39,5.85,1,225648.353429,10,20,3,2,22,0,0,32,0,0,0
531523.88,3144646.49,2.07,1,225648.353429,10,32,3,3,22,0,0,32,0,0,0
531525.46,3144646.09,9.50,1,225648.353443,10,183,1,1,22,0,0,32,0,0,0
531525.86,3144645.92,8.61,1,225648.353457,10,123,2,1,22,0,0,32,0,0,0
531524.84,3144646.11,1.37,2,225648.353457,10,71,2,2,22,0,0,32,0,0,0
531526.52,3144645.70,9.56,1,225648.353471,10,153,3,1,22,0,0,32,0,0,0
531525.94,3144645.80,5.44,1,225648.353471,10,14,3,2,22,0,0,32,0,0,0
531525.36,3144645.91,1.31,2,225648.353471,10,3,3,3,22,0,0,32,0,0,0
531527.05,3144645.50,9.53,1,225648.353485,10,139,1,1,22,0,0,32,0,0,0
531527.18,3144645.37,6.67,1,225648.353499,9,98,2,1,22,0,0,32,0,0,0
531526.45,3144645.51,1.36,2,225648.353499,9,34,2,2,22,0,0,32,0,0,0
531527.98,3144645.13,8.57,1,225648.353513,9,145,2,1,22,0,0,32,0,0,0
531526.98,3144645.31,1.34,2,225648.353513,9,28,2,2,22,0,0,32,0,0,0
531528.50,3144644.93,8.55,1,225648.353527,9,153,2,1,22,0,0,32,0,0,0
531527.52,3144645.11,1.41,2,225648.353527,9,15,2,2,22,0,0,32,0,0,0
531528.96,3144644.75,8.09,1,225648.353541,9,138,1,1,22,0,0,32,0,0,0
531529.57,3144644.53,8.75,1,225648.353555,9,153,2,1,22,0,0,32,0,0,0
531528.61,3144644.71,1.62,2,225648.353555,9,7,2,2,22,0,0,32,0,0,0
531530.01,3144644.35,8.05,1,225648.353569,9,67,2,1,22,0,0,32,0,0,0
531529.14,3144644.51,1.65,2,225648.353569,9,422,2,2,22,0,0,32,0,0,0
531529.70,3144644.30,1.78,2,225648.353583,9,250,1,1,22,0,0,32,0,0,0
531530.23,3144644.10,1.81,2,225648.353597,9,266,1,1,22,0,0,32,0,0,0
531530.77,3144643.90,1.87,2,225648.353611,9,265,1,1,22,0,0,32,0,0,0
531531.31,3144643.70,1.89,2,225648.353625,9,250,1,1,22,0,0,32,0,0,0
531531.84,3144643.50,1.88,2,225648.353639,9,265,1,1,22,0,0,32,0,0,0
531532.37,3144643.31,1.89,2,225648.353653,9,250,1,1,22,0,0,32,0,0,0
531532.91,3144643.11,1.92,2,225648.353667,9,250,1,1,22,0,0,32,0,0,0
531533.44,3144642.91,1.93,2,225648.353681,9,265,1,1,22,0,0,32,0,0,0
531534.38,3144642.64,5.11,1,225648.353695,9,152,1,1,22,0,0,32,0,0,0
531534.94,3144642.44,5.38,1,225648.353709,9,152,1,1,22,0,0,32,0,0,0
531535.50,3144642.24,5.60,1,225648.353723,9,140,1,1,22,0,0,32,0,0,0
531536.04,3144642.04,5.68,1,225648.353737,9,139,1,1,22,0,0,32,0,0,0
531536.56,3144641.84,5.64,1,225648.353751,9,158,1,1,22,0,0,32,0,0,0
531537.09,3144641.64,5.65,1,225648.353765,9,141,1,1,22,0,0,32,0,0,0
531537.61,3144641.45,5.62,1,225648.353779,9,145,1,1,22,0,0,32,0,0,0
531538.13,3144641.25,5.62,1,225648.353793,8,143,1,1,22,0,0,32,0,0,0
531538.66,3144641.05,5.57,1,225648.353807,8,154,1,1,22,0,0,32,0,0,0
531539.19,3144640.85,5.60,1,225648.353821,8,142,1,1,22,0,0,32,0,0,0
531539.71,3144640.66,5.56,1,225648.353835,8,138,1,1,22,0,0,32,0,0,0
531540.24,3144640.46,5.57,2,225648.353849,8,147,1,1,22,0,0,32,0,0,0
531540.77,3144640.26,5.55,2,225648.353863,8,151,1,1,22,0,0,32,0,0,0
531541.29,3144640.07,5.50,2,225648.353877,8,138,1,1,22,0,0,32,0,0,0
531541.82,3144639.87,5.50,2,225648.353891,8,142,1,1,22,0,0,32,0,0,0
531542.34,3144639.67,5.50,2,225648.353905,8,138,1,1,22,0,0,32,0,0,0
531542.87,3144639.48,5.49,2,225648.353919,8,133,1,1,22,0,0,32,0,0,0
531543.40,3144639.28,5.49,2,225648.353933,8,130,1,1,22,0,0,32,0,0,0
531543.92,3144639.08,5.49,2,225648.353947,8,137,1,1,22,0,0,32,0,0,0
531544.44,3144638.89,5.51,2,225648.353961,8,144,1,1,22,0,0,32,0,0,0
531544.97,3144638.69,5.49,2,225648.353975,8,130,1,1,22,0,0,32,0,0,0
531545.49,3144638.49,5.46,2,225648.353989,8,138,1,1,22,0,0,32,0,0,0
531546.03,3144638.29,5.48,2,225648.354003,8,135,1,1,22,0,0,32,0,0,0
531546.55,3144638.10,5.48,2,225648.354017,8,152,1,1,22,0,0,32,0,0,0
531547.08,3144637.90,5.47,2,225648.354031,8,130,1,1,22,0,0,32,0,0,0
531547.60,3144637.70,5.45,2,225648.354045,8,130,1,1,22,0,0,32,0,0,0
531548.13,3144637.51,5.44,1,225648.354059,8,137,1,1,22,0,0,32,0,0,0
531548.65,3144637.31,5.44,1,225648.354073,7,138,1,1,22,0,0,32,0,0,0
531549.18,3144637.11,5.44,1,225648.354087,7,129,1,1,22,0,0,32,0,0,0
531549.70,3144636.92,5.35,1,225648.354101,7,147,1,1,22,0,0,32,0,0,0
531550.20,3144636.72,5.15,1,225648.354115,7,143,1,1,22,0,0,32,0,0,0
531550.39,3144636.57,1.87,2,225648.354129,7,263,1,1,22,0,0,32,0,0,0
531550.94,3144636.37,2.08,1,225648.354143,7,155,1,1,22,0,0,32,0,0,0
531551.44,3144636.17,1.85,2,225648.354157,7,186,1,1,22,0,0,32,0,0,0
531551.97,3144635.97,1.83,2,225648.354171,7,186,1,1,22,0,0,32,0,0,0
531552.56,3144635.77,2.38,1,225648.354185,7,154,1,1,22,0,0,32,0,0,0
531553.14,3144635.57,2.96,1,225648.354199,7,170,1,1,22,0,0,32,0,0,0
531553.90,3144635.35,5.33,1,225648.354213,7,142,2,1,22,0,0,32,0,0,0
531553.53,3144635.38,1.59,2,225648.354213,7,50,2,2,22,0,0,32,0,0,0
531554.40,3144635.15,5.13,1,225648.354227,7,168,2,1,22,0,0,32,0,0,0
531554.04,3144635.19,1.45,2,225648.354227,7,15,2,2,22,0,0,32,0,0,0
531554.88,3144634.96,4.74,1,225648.354241,7,47,2,1,22,0,0,32,0,0,0
531554.60,3144634.99,1.75,1,225648.354241,7,93,2,2,22,0,0,32,0,0,0
531555.49,3144634.76,5.58,1,225648.354255,7,168,1,1,22,0,0,32,0,0,0
531555.99,3144634.56,5.32,1,225648.354269,7,122,1,1,22,0,0,32,0,0,0
531556.50,3144634.37,5.22,1,225648.354283,7,132,1,1,22,0,0,32,0,0,0
531556.95,3144634.18,4.35,1,225648.354297,7,129,1,1,22,0,0,32,0,0,0
531557.22,3144634.01,1.62,2,225648.354311,7,153,1,1,22,0,0,32,0,0,0
531557.75,3144633.81,1.65,2,225648.354325,7,232,1,1,22,0,0,32,0,0,0
531558.27,3144633.61,1.60,2,225648.354339,7,217,1,1,22,0,0,32,0,0,0
531558.81,3144633.41,1.69,2,225648.354353,7,232,1,1,22,0,0,32,0,0,0
531559.33,3144633.22,1.66,2,225648.354367,6,247,1,1,22,0,0,32,0,0,0
531559.86,3144633.02,1.66,2,225648.354381,6,247,1,1,22,0,0,32,0,0,0
531560.39,3144632.82,1.65,2,225648.354395,6,247,1,1,22,0,0,32,0,0,0
531560.91,3144632.62,1.53,2,225648.354409,6,216,1,1,22,0,0,32,0,0,0
531561.43,3144632.43,1.49,2,225648.354423,6,139,1,1,22,0,0,32,0,0,0
531561.95,3144632.23,1.47,2,225648.354437,6,170,1,1,22,0,0,32,0,0,0
531562.49,3144632.03,1.52,2,225648.354451,6,170,1,1,22,0,0,32,0,0,0
531563.01,3144631.84,1.53,2,225648.354465,6,139,1,1,22,0,0,32,0,0,0
531563.54,3144631.64,1.54,2,225648.354479,6,152,1,1,22,0,0,32,0,0,0
531564.07,3144631.44,1.57,2,225648.354493,6,123,1,1,22,0,0,32,0,0,0
531564.60,3144631.25,1.55,2,225648.354507,6,139,1,1,22,0,0,32,0,0,0
531565.12,3144631.05,1.54,2,225648.354521,6,123,1,1,22,0,0,32,0,0,0
531565.64,3144630.85,1.50,2,225648.354535,6,155,1,1,22,0,0,32,0,0,0
531566.17,3144630.66,1.49,2,225648.354549,6,139,1,1,22,0,0,32,0,0,0
531566.69,3144630.46,1.46,2,225648.354563,6,154,1,1,22,0,0,32,0,0,0
531567.22,3144630.26,1.46,2,225648.354577,6,139,1,1,22,0,0,32,0,0,0
531567.76,3144630.06,1.56,2,225648.354591,6,232,1,1,22,0,0,32,0,0,0
531568.29,3144629.87,1.64,2,225648.354605,6,262,1,1,22,0,0,32,0,0,0
531568.82,3144629.67,1.68,2,225648.354619,6,231,1,1,22,0,0,32,0,0,0
531569.34,3144629.47,1.70,2,225648.354633,6,262,1,1,22,0,0,32,0,0,0
531569.87,3144629.28,1.74,2,225648.354647,5,231,1,1,22,0,0,32,0,0,0
531570.40,3144629.08,1.71,2,225648.354661,5,200,1,1,22,0,0,32,0,0,0
531570.92,3144628.88,1.71,2,225648.354675,5,200,1,1,22,0,0,32,0,0,0
531571.45,3144628.69,1.78,2,225648.354689,5,216,1,1,22,0,0,32,0,0,0
531571.98,3144628.49,1.79,2,225648.354703,5,247,1,1,22,0,0,32,0,0,0
531572.50,3144628.30,1.80,2,225648.354717,5,277,1,1,22,0,0,32,0,0,0
531573.03,3144628.10,1.80,2,225648.354731,5,277,1,1,22,0,0,32,0,0,0
531573.55,3144627.90,1.78,2,225648.354745,5,262,1,1,22,0,0,32,0,0,0
531574.08,3144627.71,1.82,2,225648.354759,5,246,1,1,22,0,0,32,0,0,0
531574.61,3144627.51,1.80,2,225648.354773,5,231,1,1,22,0,0,32,0,0,0
531575.13,3144627.31,1.86,2,225648.354787,5,262,1,1,22,0,0,32,0,0,0
531575.66,3144627.12,1.82,2,225648.354801,5,200,1,1,22,0,0,32,0,0,0
531576.19,3144626.92,1.97,1,225648.354815,5,138,1,1,22,0,0,32,0,0,0
531576.82,3144626.73,3.62,1,225648.354829,5,199,1,1,22,0,0,32,0,0,0
531577.36,3144626.53,3.89,1,225648.354843,5,245,1,1,22,0,0,32,0,0,0
531577.87,3144626.34,3.56,1,225648.354857,5,199,1,1,22,0,0,32,0,0,0
531578.48,3144626.15,5.02,1,225648.354871,5,93,1,1,22,0,0,32,0,0,0
531579.02,3144625.95,5.33,1,225648.354885,5,82,1,1,22,0,0,32,0,0,0
531579.55,3144625.76,5.58,1,225648.354899,5,103,1,1,22,0,0,32,0,0,0
531580.08,3144625.57,5.76,1,225648.354913,5,83,1,1,22,0,0,32,0,0,0
531580.60,3144625.37,5.73,2,225648.354927,5,87,1,1,22,0,0,32,0,0,0
531581.13,3144625.18,5.74,1,225648.354941,4,80,1,1,22,0,0,32,0,0,0
531581.65,3144624.98,5.71,1,225648.354955,4,86,1,1,22,0,0,32,0,0,0
531582.17,3144624.78,5.69,1,225648.354969,4,90,1,1,22,0,0,32,0,0,0
531582.69,3144624.59,5.69,1,225648.354983,4,89,1,1,22,0,0,32,0,0,0
531583.21,3144624.39,5.73,1,225648.354997,4,81,1,1,22,0,0,32,0,0,0
531583.73,3144624.20,5.69,2,225648.355011,4,95,1,1,22,0,0,32,0,0,0
531584.25,3144624.01,5.68,2,225648.355025,4,86,1,1,22,0,0,32,0,0,0
531584.77,3144623.81,5.68,2,225648.355039,4,86,1,1,22,0,0,32,0,0,0
531585.29,3144623.62,5.64,2,225648.355053,4,102,1,1,22,0,0,32,0,0,0
531585.81,3144623.42,5.64,1,225648.355067,4,86,1,1,22,0,0,32,0,0,0
531586.33,3144623.22,5.46,1,225648.355081,4,100,1,1,22,0,0,32,0,0,0
531586.83,3144623.03,5.15,1,225648.355095,4,92,1,1,22,0,0,32,0,0,0
531587.33,3144622.83,4.90,1,225648.355109,4,101,1,1,22,0,0,32,0,0,0
531587.73,3144622.61,2.11,2,225648.355123,4,184,1,1,22,0,0,32,0,0,0
531588.25,3144622.41,2.03,2,225648.355137,4,200,1,1,22,0,0,32,0,0,0
531588.78,3144622.22,2.20,1,225648.355151,4,230,1,1,22,0,0,32,0,0,0
531589.30,3144622.02,1.91,2,225648.355165,4,230,1,1,22,0,0,32,0,0,0
531589.82,3144621.82,1.89,2,225648.355179,4,261,1,1,22,0,0,32,0,0,0
531590.34,3144621.63,1.89,2,225648.355193,4,292,1,1,22,0,0,32,0,0,0
531590.86,3144621.43,1.91,2,225648.355207,4,277,1,1,22,0,0,32,0,0,0
531591.39,3144621.24,1.91,2,225648.355221,3,307,1,1,22,0,0,32,0,0,0
531591.91,3144621.04,1.89,2,225648.355235,3,261,1,1,22,0,0,32,0,0,0
531592.43,3144620.85,1.89,2,225648.355249,3,261,1,1,22,0,0,32,0,0,0
531592.96,3144620.65,1.92,2,225648.355263,3,276,1,1,22,0,0,32,0,0,0
531593.48,3144620.45,1.92,1,225648.355277,3,276,1,1,22,0,0,32,0,0,0
531594.00,3144620.26,1.93,1,225648.355291,3,292,1,1,22,0,0,32,0,0,0
531594.52,3144620.07,1.93,1,225648.355305,3,261,1,1,22,0,0,32,0,0,0
531595.05,3144619.87,1.91,2,225648.355319,3,276,1,1,22,0,0,32,0,0,0
531595.57,3144619.67,1.88,2,225648.355333,3,276,1,1,22,0,0,32,0,0,0
531596.09,3144619.48,1.86,2,225648.355347,3,276,1,1,22,0,0,32,0,0,0
531596.62,3144619.28,1.83,2,225648.355361,3,276,1,1,22,0,0,32,0,0,0
531597.14,3144619.08,1.80,2,225648.355375,3,292,1,1,22,0,0,32,0,0,0
531597.68,3144618.90,2.45,1,225648.355389,3,214,1,1,22,0,0,32,0,0,0
531598.18,3144618.69,1.70,2,225648.355403,3,261,1,1,22,0,0,32,0,0,0
531598.70,3144618.50,1.70,2,225648.355417,3,277,1,1,22,0,0,32,0,0,0
531599.23,3144618.30,1.74,1,225648.355431,3,246,1,1,22,0,0,32,0,0,0
531599.85,3144618.16,5.41,1,225648.355445,3,81,2,1,22,0,0,32,0,0,0
531599.75,3144618.10,1.68,2,225648.355445,3,166,2,2,22,0,0,32,0,0,0
531600.39,3144617.98,6.02,1,225648.355459,3,154,2,1,22,0,0,32,0,0,0
531600.27,3144617.91,1.70,2,225648.355459,3,23,2,2,22,0,0,32,0,0,0
531600.90,3144617.78,5.69,1,225648.355473,3,125,2,1,22,0,0,32,0,0,0
531600.79,3144617.72,1.75,2,225648.355473,3,107,2,2,22,0,0,32,0,0,0
531601.41,3144617.59,5.54,1,225648.355487,3,111,2,1,22,0,0,32,0,0,0
531601.32,3144617.52,1.79,2,225648.355487,3,103,2,2,22,0,0,32,0,0,0
531601.84,3144617.33,1.94,2,225648.355501,3,292,1,1,22,0,0,32,0,0,0
531601.57,3144616.67,1.95,1,225648.368647,3,276,1,1,22,0,1,32,0,0,0
531601.14,3144616.92,5.61,1,225648.368661,3,136,2,1,22,0,1,32,0,0,0
531601.04,3144616.86,1.76,2,225648.368661,3,46,2,2,22,0,1,32,0,0,0
531600.63,3144617.12,5.93,1,225648.368675,3,148,2,1,22,0,1,32,0,0,0
531600.52,3144617.05,1.74,2,225648.368675,3,41,2,2,22,0,1,32,0,0,0
531600.10,3144617.31,5.63,1,225648.368689,3,152,2,1,22,0,1,32,0,0,0
531599.99,3144617.24,1.67,2,225648.368689,3,36,2,2,22,0,1,32,0,0,0
531599.59,3144617.51,5.95,1,225648.368703,3,136,2,1,22,0,1,32,0,0,0
531599.46,3144617.44,1.57,2,225648.368703,3,24,2,2,22,0,1,32,0,0,0
531599.06,3144617.70,6.08,1,225648.368717,3,141,2,1,22,0,1,32,0,0,0
531598.94,3144617.63,1.70,2,225648.368717,3,96,2,2,22,0,1,32,0,0,0
531598.54,3144617.90,6.08,1,225648.368731,3,47,2,1,22,0,1,32,0,0,0
531598.41,3144617.83,1.61,2,225648.368731,3,446,2,2,22,0,1,32,0,0,0
531597.90,3144618.02,1.88,1,225648.368745,3,169,1,1,22,0,1,32,0,0,0
531597.41,3144618.24,3.14,1,225648.368759,3,275,1,1,22,0,1,32,0,0,0
531596.85,3144618.41,1.85,2,225648.368773,3,261,1,1,22,0,1,32,0,0,0
531596.33,3144618.61,1.88,2,225648.368787,3,246,1,1,22,0,1,32,0,0,0
531595.80,3144618.80,1.89,1,225648.368801,3,307,1,1,22,0,1,32,0,0,0
531595.28,3144619.00,1.91,2,225648.368815,3,153,1,1,22,0,1,32,0,0,0
531594.87,3144619.23,5.03,1,225648.368829,3,95,1,1,22,0,1,32,0,0,0
531594.34,3144619.42,5.03,1,225648.368843,3,96,1,1,22,0,1,32,0,0,0
531593.82,3144619.62,5.03,1,225648.368857,3,105,1,1,22,0,1,32,0,0,0
531593.30,3144619.81,5.01,1,225648.368871,3,100,1,1,22,0,1,32,0,0,0
531592.78,3144620.00,5.03,1,225648.368885,3,99,1,1,22,0,1,32,0,0,0
531592.26,3144620.20,5.07,1,225648.368899,3,96,1,1,22,0,1,32,0,0,0
531591.74,3144620.39,5.08,1,225648.368913,3,88,1,1,22,0,1,32,0,0,0
531591.21,3144620.58,5.07,1,225648.368927,3,92,1,1,22,0,1,32,0,0,0
531590.69,3144620.78,5.07,1,225648.368941,4,102,1,1,22,0,1,32,0,0,0
531590.17,3144620.97,5.09,1,225648.368955,4,101,1,1,22,0,1,32,0,0,0
531589.65,3144621.16,5.05,1,225648.368969,4,100,1,1,22,0,1,32,0,0,0
531589.13,3144621.35,5.13,1,225648.368983,4,96,1,1,22,0,1,32,0,0,0
531588.61,3144621.55,5.14,1,225648.368997,4,87,1,1,22,0,1,32,0,0,0
531588.09,3144621.74,5.13,1,225648.369011,4,108,1,1,22,0,1,32,0,0,0
531587.57,3144621.93,5.17,1,225648.369025,4,86,1,1,22,0,1,32,0,0,0
531587.04,3144622.13,5.18,1,225648.369039,4,92,1,1,22,0,1,32,0,0,0
531586.52,3144622.32,5.22,2,225648.369053,4,100,1,1,22,0,1,32,0,0,0
531586.01,3144622.52,5.45,2,225648.369067,4,96,1,1,22,0,1,32,0,0,0
531585.51,3144622.71,5.73,1,225648.369081,4,95,1,1,22,0,1,32,0,0,0
531585.00,3144622.91,5.99,1,225648.369095,4,88,1,1,22,0,1,32,0,0,0
531584.48,3144623.10,6.05,2,225648.369109,4,92,1,1,22,0,1,32,0,0,0
531583.96,3144623.29,6.03,2,225648.369123,4,101,1,1,22,0,1,32,0,0,0
531583.43,3144623.49,6.02,2,225648.369137,4,100,1,1,22,0,1,32,0,0,0
531582.91,3144623.68,6.04,2,225648.369151,4,94,1,1,22,0,1,32,0,0,0
531582.39,3144623.87,6.08,2,225648.369165,4,100,1,1,22,0,1,32,0,0,0
531581.87,3144624.07,6.07,2,225648.369179,4,101,1,1,22,0,1,32,0,0,0
531581.35,3144624.26,6.14,2,225648.369193,4,95,1,1,22,0,1,32,0,0,0
531580.83,3144624.45,6.11,2,225648.369207,4,95,1,1,22,0,1,32,0,0,0
531580.31,3144624.65,6.12,2,225648.369221,5,64,1,1,22,0,1,32,0,0,0
531579.77,3144624.84,5.85,2,225648.369235,5,91,1,1,22,0,1,32,0,0,0
531579.24,3144625.03,5.57,2,225648.369249,5,94,1,1,22,0,1,32,0,0,0
531578.70,3144625.22,5.26,1,225648.369263,5,86,1,1,22,0,1,32,0,0,0
531578.16,3144625.41,4.99,1,225648.369277,5,90,1,1,22,0,1,32,0,0,0
531577.56,3144625.60,3.77,1,225648.369291,5,276,1,1,22,0,1,32,0,0,0
531577.03,3144625.80,3.78,1,225648.369305,5,260,1,1,22,0,1,32,0,0,0
531576.51,3144625.99,3.73,1,225648.369319,5,199,1,1,22,0,1,32,0,0,0
531575.87,3144626.18,1.89,2,225648.369333,5,200,1,1,22,0,1,32,0,0,0
531575.34,3144626.37,1.89,2,225648.369347,5,215,1,1,22,0,1,32,0,0,0
531574.81,3144626.57,1.86,2,225648.369361,5,262,1,1,22,0,1,32,0,0,0
531574.28,3144626.76,1.82,2,225648.369375,5,246,1,1,22,0,1,32,0,0,0
531573.76,3144626.96,1.85,2,225648.369389,5,262,1,1,22,0,1,32,0,0,0
531573.23,3144627.15,1.80,2,225648.369403,5,262,1,1,22,0,1,32,0,0,0
531572.71,3144627.35,1.83,2,225648.369417,5,293,1,1,22,0,1,32,0,0,0
531572.18,3144627.54,1.86,2,225648.369431,5,262,1,1,22,0,1,32,0,0,0
531571.65,3144627.73,1.78,2,225648.369445,5,278,1,1,22,0,1,32,0,0,0
531571.12,3144627.93,1.71,2,225648.369459,5,200,1,1,22,0,1,32,0,0,0
531570.59,3144628.12,1.70,2,225648.369473,5,200,1,1,22,0,1,32,0,0,0
531570.07,3144628.32,1.72,2,225648.369487,5,200,1,1,22,0,1,32,0,0,0
531569.54,3144628.51,1.75,2,225648.369501,5,293,1,1,22,0,1,32,0,0,0
531569.02,3144628.71,1.70,2,225648.369515,6,231,1,1,22,0,1,32,0,0,0
531568.49,3144628.90,1.70,2,225648.369529,6,247,1,1,22,0,1,32,0,0,0
531567.96,3144629.10,1.63,2,225648.369543,6,247,1,1,22,0,1,32,0,0,0
531567.43,3144629.29,1.53,2,225648.369557,6,201,1,1,22,0,1,32,0,0,0
531566.89,3144629.49,1.48,2,225648.369571,6,154,1,1,22,0,1,32,0,0,0
531566.37,3144629.68,1.51,2,225648.369585,6,154,1,1,22,0,1,32,0,0,0
531565.84,3144629.88,1.49,2,225648.369599,6,123,1,1,22,0,1,32,0,0,0
531565.31,3144630.07,1.53,2,225648.369613,6,139,1,1,22,0,1,32,0,0,0
531564.79,3144630.27,1.54,2,225648.369627,6,123,1,1,22,0,1,32,0,0,0
531564.26,3144630.46,1.55,2,225648.369641,6,156,1,1,22,0,1,32,0,0,0
531563.74,3144630.66,1.55,2,225648.369655,6,139,1,1,22,0,1,32,0,0,0
531563.21,3144630.85,1.56,2,225648.369669,6,123,1,1,22,0,1,32,0,0,0
531562.68,3144631.05,1.51,2,225648.369683,6,154,1,1,22,0,1,32,0,0,0
531562.15,3144631.24,1.52,2,225648.369697,6,139,1,1,22,0,1,32,0,0,0
531561.62,3144631.44,1.50,2,225648.369711,6,154,1,1,22,0,1,32,0,0,0
531561.09,3144631.63,1.48,2,225648.369725,6,139,1,1,22,0,1,32,0,0,0
531560.58,3144631.83,1.59,2,225648.369739,6,247,1,1,22,0,1,32,0,0,0
531560.06,3144632.02,1.65,2,225648.369753,6,263,1,1,22,0,1,32,0,0,0
531559.53,3144632.22,1.66,2,225648.369767,6,247,1,1,22,0,1,32,0,0,0
531559.00,3144632.41,1.66,2,225648.369781,6,232,1,1,22,0,1,32,0,0,0
531558.48,3144632.61,1.73,2,225648.369795,6,247,1,1,22,0,1,32,0,0,0
531557.94,3144632.80,1.63,2,225648.369809,7,279,1,1,22,0,1,32,0,0,0
531557.41,3144633.00,1.61,1,225648.369823,7,279,1,1,22,0,1,32,0,0,0
531557.24,3144633.16,5.40,1,225648.369837,7,98,1,1,22,0,1,32,0,0,0
531556.71,3144633.36,5.31,1,225648.369851,7,214,1,1,22,0,1,32,0,0,0
531556.15,3144633.56,4.99,1,225648.369865,7,122,1,1,22,0,1,32,0,0,0
531555.68,3144633.75,5.59,1,225648.369879,7,153,2,1,22,0,1,32,0,0,0
531555.30,3144633.78,1.66,2,225648.369879,7,13,2,2,22,0,1,32,0,0,0
531555.21,3144633.93,6.13,1,225648.369893,7,198,1,1,22,0,1,32,0,0,0
531554.56,3144634.14,4.91,1,225648.369907,7,151,2,1,22,0,1,32,0,0,0
531554.23,3144634.17,1.51,2,225648.369907,7,38,2,2,22,0,1,32,0,0,0
531554.03,3144634.34,4.82,1,225648.369921,7,153,2,1,22,0,1,32,0,0,0
531553.71,3144634.37,1.59,2,225648.369921,7,31,2,2,22,0,1,32,0,0,0
531553.52,3144634.53,5.00,1,225648.369935,7,109,1,1,22,0,1,32,0,0,0
531552.95,3144634.73,4.53,1,225648.369949,7,76,2,1,22,0,1,32,0,0,0
531552.67,3144634.76,1.66,2,225648.369949,7,357,2,2,22,0,1,32,0,0,0
531552.15,3144634.95,1.82,2,225648.369963,7,263,1,1,22,0,1,32,0,0,0
531551.62,3144635.15,1.83,2,225648.369977,7,263,1,1,22,0,1,32,0,0,0
531551.10,3144635.34,1.84,2,225648.369991,7,248,1,1,22,0,1,32,0,0,0
531550.58,3144635.54,1.87,2,225648.370005,7,263,1,1,22,0,1,32,0,0,0
531550.05,3144635.73,1.91,2,225648.370019,7,232,1,1,22,0,1,32,0,0,0
531549.86,3144635.89,5.17,1,225648.370033,7,143,1,1,22,0,1,32,0,0,0
531549.35,3144636.08,5.38,1,225648.370047,7,154,1,1,22,0,1,32,0,0,0
531548.85,3144636.27,5.58,1,225648.370061,7,156,1,1,22,0,1,32,0,0,0
531548.34,3144636.47,5.79,1,225648.370075,7,143,1,1,22,0,1,32,0,0,0
531547.82,3144636.66,5.80,1,225648.370089,8,145,1,1,22,0,1,32,0,0,0
531547.29,3144636.85,5.80,2,225648.370103,8,142,1,1,22,0,1,32,0,0,0
531546.77,3144637.05,5.80,2,225648.370117,8,154,1,1,22,0,1,32,0,0,0
531546.24,3144637.24,5.82,2,225648.370131,8,122,1,1,22,0,1,32,0,0,0
531545.71,3144637.44,5.82,2,225648.370145,8,152,1,1,22,0,1,32,0,0,0
531545.18,3144637.64,5.81,2,225648.370159,8,158,1,1,22,0,1,32,0,0,0
531544.66,3144637.83,5.88,2,225648.370173,8,138,1,1,22,0,1,32,0,0,0
531544.13,3144638.02,5.83,2,225648.370187,8,156,1,1,22,0,1,32,0,0,0
531543.61,3144638.22,5.86,2,225648.370201,8,146,1,1,22,0,1,32,0,0,0
531543.08,3144638.41,5.86,2,225648.370215,8,144,1,1,22,0,1,32,0,0,0
531542.55,3144638.61,5.88,2,225648.370229,8,131,1,1,22,0,1,32,0,0,0
531542.03,3144638.80,5.89,2,225648.370243,8,149,1,1,22,0,1,32,0,0,0
531541.49,3144639.00,5.88,2,225648.370257,8,153,1,1,22,0,1,32,0,0,0
531540.97,3144639.20,5.92,2,225648.370271,8,139,1,1,22,0,1,32,0,0,0
531540.45,3144639.39,5.92,2,225648.370285,8,141,1,1,22,0,1,32,0,0,0
531539.92,3144639.58,5.92,2,225648.370299,8,135,1,1,22,0,1,32,0,0,0
531539.39,3144639.78,5.94,2,225648.370313,8,133,1,1,22,0,1,32,0,0,0
531538.87,3144639.97,5.96,2,225648.370327,8,150,1,1,22,0,1,32,0,0,0
531538.35,3144640.17,5.99,2,225648.370341,8,123,1,1,22,0,1,32,0,0,0
531537.81,3144640.37,5.97,2,225648.370355,8,146,1,1,22,0,1,32,0,0,0
531537.29,3144640.56,5.99,2,225648.370369,8,141,1,1,22,0,1,32,0,0,0
531536.77,3144640.75,6.02,2,225648.370383,9,147,1,1,22,0,1,32,0,0,0
531536.24,3144640.95,6.01,2,225648.370397,9,151,1,1,22,0,1,32,0,0,0
531535.69,3144641.15,5.87,2,225648.370411,9,144,1,1,22,0,1,32,0,0,0
531535.13,3144641.35,5.59,2,225648.370425,9,154,1,1,22,0,1,32,0,0,0
531534.57,3144641.55,5.36,1,225648.370439,9,137,1,1,22,0,1,32,0,0,0
531534.01,3144641.75,5.11,1,225648.370453,9,149,1,1,22,0,1,32,0,0,0
531533.07,3144642.02,1.92,2,225648.370467,9,281,1,1,22,0,1,32,0,0,0
531532.54,3144642.21,1.92,2,225648.370481,9,281,1,1,22,0,1,32,0,0,0
531532.00,3144642.41,1.87,2,225648.370495,9,281,1,1,22,0,1,32,0,0,0
531531.47,3144642.61,1.90,2,225648.370509,9,265,1,1,22,0,1,32,0,0,0
531530.94,3144642.80,1.89,2,225648.370523,9,281,1,1,22,0,1,32,0,0,0
531530.40,3144643.00,1.87,2,225648.370537,9,312,1,1,22,0,1,32,0,0,0
531529.87,3144643.20,1.86,1,225648.370551,9,328,1,1,22,0,1,32,0,0,0
531529.32,3144643.40,1.77,1,225648.370565,9,297,1,1,22,0,1,32,0,0,0
531528.79,3144643.59,1.72,2,225648.370579,9,297,1,1,22,0,1,32,0,0,0
531528.87,3144643.68,6.31,1,225648.370593,9,3,2,1,22,0,1,32,0,0,0
531528.23,3144643.80,1.56,2,225648.370593,9,611,2,2,22,0,1,32,0,0,0
531528.73,3144643.81,9.07,1,225648.370607,9,72,3,1,22,0,1,32,0,0,0
531528.28,3144643.89,5.83,1,225648.370607,9,71,3,2,22,0,1,32,0,0,0
531527.69,3144643.99,1.49,2,225648.370607,9,18,3,3,22,0,1,32,0,0,0
531528.38,3144643.97,10.41,1,225648.370621,9,183,1,1,22,0,1,32,0,0,0
531527.68,3144644.20,9.13,1,225648.370635,9,137,2,1,22,0,1,32,0,0,0
531526.60,3144644.39,1.31,2,225648.370635,9,7,2,2,22,0,1,32,0,0,0
531527.10,3144644.40,8.73,1,225648.370649,9,153,1,1,22,0,1,32,0,0,0
531526.66,3144644.58,9.38,1,225648.370663,10,137,1,1,22,0,1,32,0,0,0
531525.76,3144644.84,6.77,1,225648.370677,10,128,1,1,22,0,1,32,0,0,0
531525.73,3144644.95,10.31,1,225648.370691,10,168,2,1,22,0,1,32,0,0,0
531524.95,3144645.09,4.74,1,225648.370691,10,23,2,2,22,0,1,32,0,0,0
531525.10,3144645.16,9.55,1,225648.370705,10,124,3,1,22,0,1,32,0,0,0
531524.60,3144645.26,6.01,1,225648.370705,10,92,3,2,22,0,1,32,0,0,0
531523.94,3144645.38,1.39,2,225648.370705,10,1,3,3,22,0,1,32,0,0,0
531524.12,3144645.44,6.39,1,225648.370719,10,108,2,1,22,0,1,32,0,0,0
531523.41,3144645.58,1.44,2,225648.370719,10,32,2,2,22,0,1,32,0,0,0
531523.69,3144645.62,7.07,1,225648.370733,10,150,1,1,22,0,1,32,0,0,0
531523.65,3144645.72,10.48,1,225648.370747,10,81,2,1,22,0,1,32,0,0,0
531523.23,3144645.80,7.61,1,225648.370747,10,142,2,2,22,0,1,32,0,0,0
531523.02,3144645.94,9.77,1,225648.370761,10,112,3,1,22,0,1,32,0,0,0
531522.58,3144646.02,6.76,1,225648.370761,10,92,3,2,22,0,1,32,0,0,0
531521.80,3144646.17,1.41,2,225648.370761,10,20,3,3,22,0,1,32,0,0,0
531522.69,3144646.09,11.14,1,225648.370775,10,183,1,1,22,0,1,32,0,0,0
531522.20,3144646.28,11.42,1,225648.370789,10,152,1,1,22,0,1,32,0,0,0
531521.58,3144646.50,10.75,1,225648.370803,10,168,1,1,22,0,1,32,0,0,0
531520.95,3144646.71,10.09,1,225648.370817,10,137,1,1,22,0,1,32,0,0,0
531520.27,3144646.94,9.09,1,225648.370831,10,143,1,1,22,0,1,32,0,0,0
531519.98,3144647.09,10.74,1,225648.370845,10,153,1,1,22,0,1,32,0,0,0
531519.50,3144647.27,11.02,1,225648.370859,10,48,3,1,22,0,1,32,0,0,0
531518.64,3144647.44,5.30,1,225648.370859,10,4,3,2,22,0,1,32,0,0,0
531518.05,3144647.56,1.46,2,225648.370859,10,163,3,3,22,0,1,32,0,0,0
531518.15,3144647.63,5.58,1,225648.370873,10,6,2,1,22,0,1,32,0,0,0
531517.53,3144647.75,1.53,2,225648.370873,10,393,2,2,22,0,1,32,0,0,0
531517.63,3144647.82,5.70,1,225648.370887,10,6,2,1,22,0,1,32,0,0,0
531517.00,3144647.95,1.58,1,225648.370887,10,152,2,2,22,0,1,32,0,0,0
531517.10,3144648.02,5.68,1,225648.370901,10,2,2,1,22,0,1,32,0,0,0
531516.46,3144648.15,1.51,2,225648.370901,10,409,2,2,22,0,1,32,0,0,0
531516.54,3144648.22,5.54,1,225648.370915,10,2,2,1,22,0,1,32,0,0,0
531515.93,3144648.35,1.56,2,225648.370915,10,425,2,2,22,0,1,32,0,0,0
531516.03,3144648.42,5.65,1,225648.370929,10,3,2,1,22,0,1,32,0,0,0
531515.38,3144648.55,1.52,2,225648.370929,10,425,2,2,22,0,1,32,0,0,0
531515.50,3144648.62,5.71,1,225648.370943,10,3,2,1,22,0,1,32,0,0,0
531514.85,3144648.75,1.58,2,225648.370943,10,441,2,2,22,0,1,32,0,0,0
531514.96,3144648.81,5.67,1,225648.370957,11,2,2,1,22,0,1,32,0,0,0
531514.31,3144648.94,1.54,2,225648.370957,11,441,2,2,22,0,1,32,0,0,0
531514.42,3144649.01,5.61,1,225648.370971,11,3,2,1,22,0,1,32,0,0,0
531513.78,3144649.14,1.57,2,225648.370971,11,154,2,2,22,0,1,32,0,0,0
531513.89,3144649.21,5.64,1,225648.370985,11,5,2,1,22,0,1,32,0,0,0
531513.24,3144649.34,1.56,2,225648.370985,11,142,2,2,22,0,1,32,0,0,0
531513.36,3144649.40,5.63,1,225648.370999,11,3,2,1,22,0,1,32,0,0,0
531512.71,3144649.54,1.54,2,225648.370999,11,363,2,2,22,0,1,32,0,0,0
531512.82,3144649.60,5.64,1,225648.371013,11,3,2,1,22,0,1,32,0,0,0
531512.18,3144649.74,1.58,2,225648.371013,11,378,2,2,22,0,1,32,0,0,0
531512.28,3144649.80,5.55,1,225648.371027,11,3,2,1,22,0,1,32,0,0,0
531511.63,3144649.94,1.53,2,225648.371027,11,347,2,2,22,0,1,32,0,0,0
531511.74,3144650.00,5.58,1,225648.371041,11,2,2,1,22,0,1,32,0,0,0
531511.09,3144650.14,1.55,2,225648.371041,11,347,2,2,22,0,1,32,0,0,0
531510.58,3144650.33,1.67,1,225648.371055,11,126,1,1,22,0,1,32,0,0,0
531510.65,3144650.40,5.42,1,225648.371069,11,3,2,1,22,0,1,32,0,0,0
531510.02,3144650.53,1.58,2,225648.371069,11,167,2,2,22,0,1,32,0,0,0
531510.13,3144650.59,5.52,1,225648.371083,11,7,2,1,22,0,1,32,0,0,0
531509.49,3144650.73,1.60,2,225648.371083,11,94,2,2,22,0,1,32,0,0,0
531509.59,3144650.79,5.45,1,225648.371097,11,3,2,1,22,0,1,32,0,0,0
531508.95,3144650.93,1.60,2,225648.371097,11,166,2,2,22,0,1,32,0,0,0
531508.42,3144651.13,1.66,2,225648.371111,11,158,1,1,22,0,1,32,0,0,0
531508.50,3144651.19,5.40,1,225648.371125,11,1,2,1,22,0,1,32,0,0,0
531507.87,3144651.33,1.59,1,225648.371125,11,164,2,2,22,0,1,32,0,0,0
531507.34,3144651.53,1.65,1,225648.371139,11,158,1,1,22,0,1,32,0,0,0
531507.43,3144651.59,5.40,1,225648.371153,11,7,2,1,22,0,1,32,0,0,0
531506.79,3144651.73,1.58,2,225648.371153,11,138,2,2,22,0,1,32,0,0,0
531506.84,3144651.80,5.04,1,225648.371167,11,4,2,1,22,0,1,32,0,0,0
531506.25,3144651.93,1.58,2,225648.371167,11,95,2,2,22,0,1,32,0,0,0
531505.71,3144652.13,1.59,2,225648.371181,11,205,1,1,22,0,1,32,0,0,0
531505.17,3144652.33,1.61,2,225648.371195,11,301,1,1,22,0,1,32,0,0,0
531504.62,3144652.53,1.58,2,225648.371209,11,221,1,1,22,0,1,32,0,0,0
531504.08,3144652.73,1.57,2,225648.371223,11,253,1,1,22,0,1,32,0,0,0
531503.54,3144652.93,1.58,2,225648.371237,12,222,1,1,22,0,1,32,0,0,0
531503.00,3144653.13,1.56,2,225648.371251,12,285,1,1,22,0,1,32,0,0,0
531502.46,3144653.33,1.54,2,225648.371265,12,269,1,1,22,0,1,32,0,0,0
531501.92,3144653.53,1.53,2,225648.371279,12,301,1,1,22,0,1,32,0,0,0
531501.38,3144653.73,1.52,2,225648.371293,12,285,1,1,22,0,1,32,0,0,0
531500.83,3144653.93,1.49,2,225648.371307,12,301,1,1,22,0,1,32,0,0,0
531500.28,3144654.13,1.48,2,225648.371321,12,254,1,1,22,0,1,32,0,0,0
531499.73,3144654.34,1.44,2,225648.371335,12,286,1,1,22,0,1,32,0,0,0
531499.20,3144654.54,1.46,2,225648.371349,12,286,1,1,22,0,1,32,0,0,0
531499.24,3144654.10,1.47,2,225648.377831,12,254,1,1,22,0,0,32,0,0,0
531499.78,3144653.90,1.48,2,225648.377845,12,286,1,1,22,0,0,32,0,0,0
531500.32,3144653.70,1.48,2,225648.377859,12,270,1,1,22,0,0,32,0,0,0
531500.86,3144653.50,1.49,2,225648.377873,12,270,1,1,22,0,0,32,0,0,0
531501.41,3144653.29,1.52,2,225648.377887,12,270,1,1,22,0,0,32,0,0,0
531501.95,3144653.09,1.57,2,225648.377901,12,269,1,1,22,0,0,32,0,0,0
531502.50,3144652.89,1.61,2,225648.377915,12,253,1,1,22,0,0,32,0,0,0
531503.04,3144652.69,1.61,2,225648.377929,12,222,1,1,22,0,0,32,0,0,0
531503.57,3144652.49,1.58,2,225648.377943,11,253,1,1,22,0,0,32,0,0,0
531504.12,3144652.28,1.62,2,225648.377957,11,253,1,1,22,0,0,32,0,0,0
531504.65,3144652.08,1.61,2,225648.377971,11,237,1,1,22,0,0,32,0,0,0
531505.19,3144651.88,1.62,2,225648.377985,11,332,1,1,22,0,0,32,0,0,0
531506.12,3144651.60,3.96,1,225648.377999,11,9,2,1,22,0,0,32,0,0,0
531505.75,3144651.68,1.77,1,225648.377999,11,9,2,2,22,0,0,32,0,0,0
531506.27,3144651.48,1.67,1,225648.378013,11,159,1,1,22,0,0,32,0,0,0
531506.81,3144651.28,1.65,2,225648.378027,11,142,1,1,22,0,0,32,0,0,0
531507.95,3144650.95,5.27,1,225648.378041,11,12,2,1,22,0,0,32,0,0,0
531507.33,3144651.08,1.57,2,225648.378041,11,89,2,2,22,0,0,32,0,0,0
531507.88,3144650.88,1.64,2,225648.378055,11,142,1,1,22,0,0,32,0,0,0
531508.42,3144650.68,1.67,2,225648.378069,11,156,1,1,22,0,0,32,0,0,0
531508.96,3144650.48,1.66,2,225648.378083,11,126,1,1,22,0,0,32,0,0,0
531509.49,3144650.28,1.67,2,225648.378097,11,126,1,1,22,0,0,32,0,0,0
531510.62,3144649.96,5.25,1,225648.378111,11,3,2,1,22,0,0,32,0,0,0
531510.02,3144650.08,1.60,2,225648.378111,11,162,2,2,22,0,0,32,0,0,0
531510.57,3144649.88,1.66,1,225648.378125,11,142,1,1,22,0,0,32,0,0,0
531511.70,3144649.56,5.34,1,225648.378139,11,12,2,1,22,0,0,32,0,0,0
531511.09,3144649.68,1.57,2,225648.378139,11,65,2,2,22,0,0,32,0,0,0
531511.64,3144649.48,1.67,1,225648.378153,11,161,1,1,22,0,0,32,0,0,0
531512.77,3144649.16,5.40,1,225648.378167,11,3,2,1,22,0,0,32,0,0,0
531512.15,3144649.28,1.56,2,225648.378167,11,378,2,2,22,0,0,32,0,0,0
531513.29,3144648.96,5.33,1,225648.378181,11,2,2,1,22,0,0,32,0,0,0
531512.69,3144649.08,1.60,2,225648.378181,11,165,2,2,22,0,0,32,0,0,0
531513.81,3144648.77,5.33,1,225648.378195,11,3,2,1,22,0,0,32,0,0,0
531513.21,3144648.89,1.53,2,225648.378195,11,363,2,2,22,0,0,32,0,0,0
531514.35,3144648.57,5.35,1,225648.378209,11,3,2,1,22,0,0,32,0,0,0
531513.76,3144648.69,1.58,2,225648.378209,11,174,2,2,22,0,0,32,0,0,0
531514.30,3144648.48,1.66,2,225648.378223,11,152,1,1,22,0,0,32,0,0,0
531515.43,3144648.17,5.45,1,225648.378237,10,14,2,1,22,0,0,32,0,0,0
531514.83,3144648.29,1.59,2,225648.378237,10,83,2,2,22,0,0,32,0,0,0
531515.38,3144648.08,1.68,1,225648.378251,10,149,1,1,22,0,0,32,0,0,0
531516.47,3144647.77,5.33,1,225648.378265,10,4,2,1,22,0,0,32,0,0,0
531515.89,3144647.89,1.53,2,225648.378265,10,425,2,2,22,0,0,32,0,0,0
531517.01,3144647.57,5.38,1,225648.378279,10,3,2,1,22,0,0,32,0,0,0
531516.43,3144647.69,1.57,2,225648.378279,10,166,2,2,22,0,0,32,0,0,0
531517.56,3144647.37,5.52,1,225648.378293,10,5,2,1,22,0,0,32,0,0,0
531516.96,3144647.49,1.57,2,225648.378293,10,152,2,2,22,0,0,32,0,0,0
531518.98,3144647.00,11.38,1,225648.378307,10,126,3,1,22,0,0,32,0,0,0
531518.06,3144647.18,5.32,1,225648.378307,10,5,3,2,22,0,0,32,0,0,0
531517.48,3144647.29,1.46,2,225648.378307,10,51,3,3,22,0,0,32,0,0,0
531519.52,3144646.80,11.40,1,225648.378321,10,183,2,1,22,0,0,32,0,0,0
531518.03,3144647.09,1.55,2,225648.378321,10,11,2,2,22,0,0,32,0,0,0
531519.95,3144646.62,10.77,1,225648.378335,10,183,2,1,22,0,0,32,0,0,0
531519.46,3144646.72,7.54,1,225648.378335,10,45,2,2,22,0,0,32,0,0,0
531520.43,3144646.43,10.47,1,225648.378349,10,137,1,1,22,0,0,32,0,0,0
531521.04,3144646.22,11.00,1,225648.378363,10,213,1,1,22,0,0,32,0,0,0
531521.45,3144646.05,10.27,1,225648.378377,10,214,1,1,22,0,0,32,0,0,0
531522.14,3144645.82,11.36,1,225648.378391,10,167,1,1,22,0,0,32,0,0,0
531522.54,3144645.65,10.48,1,225648.378405,10,183,1,1,22,0,0,32,0,0,0
531522.96,3144645.47,9.73,1,225648.378419,10,118,1,1,22,0,0,32,0,0,0
531523.69,3144645.23,11.10,1,225648.378433,10,74,2,1,22,0,0,32,0,0,0
531523.15,3144645.34,7.35,1,225648.378433,10,84,2,2,22,0,0,32,0,0,0
531523.90,3144645.10,8.87,1,225648.378447,10,112,3,1,22,0,0,32,0,0,0
531523.38,3144645.19,5.31,1,225648.378447,10,32,3,2,22,0,0,32,0,0,0
531522.81,3144645.30,1.31,2,225648.378447,10,7,3,3,22,0,0,32,0,0,0
531524.62,3144644.86,10.29,1,225648.378461,10,63,2,1,22,0,0,32,0,0,0
531524.10,3144644.96,6.61,1,225648.378461,10,146,2,2,22,0,0,32,0,0,0
531524.99,3144644.70,9.18,1,225648.378475,10,23,3,1,22,0,0,32,0,0,0
531524.53,3144644.78,5.97,1,225648.378475,10,155,3,2,22,0,0,32,0,0,0
531523.88,3144644.90,1.36,2,225648.378475,10,47,3,3,22,0,0,32,0,0,0
531525.68,3144644.47,10.33,1,225648.378489,10,61,3,1,22,0,0,32,0,0,0
531525.05,3144644.59,5.87,1,225648.378489,10,75,3,2,22,0,0,32,0,0,0
531524.40,3144644.71,1.30,2,225648.378489,10,30,3,3,22,0,0,32,0,0,0
531526.15,3144644.28,9.88,1,225648.378503,10,130,2,1,22,0,0,32,0,0,0
531525.64,3144644.38,6.28,1,225648.378503,10,48,2,2,22,0,0,32,0,0,0
531526.71,3144644.08,10.08,1,225648.378517,9,122,1,1,22,0,0,32,0,0,0
531527.23,3144643.88,10.08,1,225648.378531,9,168,1,1,22,0,0,32,0,0,0
531527.78,3144643.69,10.18,1,225648.378545,9,152,1,1,22,0,0,32,0,0,0
531528.29,3144643.49,10.09,1,225648.378559,9,151,1,1,22,0,0,32,0,0,0
531528.77,3144643.30,9.82,1,225648.378573,9,125,1,1,22,0,0,32,0,0,0
531529.02,3144643.16,7.75,1,225648.378587,9,102,2,1,22,0,0,32,0,0,0
531528.19,3144643.30,1.65,2,225648.378587,9,83,2,2,22,0,0,32,0,0,0
531529.65,3144642.94,8.47,1,225648.378601,9,67,2,1,22,0,0,32,0,0,0
531528.73,3144643.10,1.66,2,225648.378601,9,516,2,2,22,0,0,32,0,0,0
531530.11,3144642.76,7.99,1,225648.378615,9,57,2,1,22,0,0,32,0,0,0
531529.27,3144642.90,1.74,2,225648.378615,9,563,2,2,22,0,0,32,0,0,0
531529.82,3144642.70,1.86,2,225648.378629,9,281,1,1,22,0,0,32,0,0,0
531530.36,3144642.50,1.90,2,225648.378643,9,312,1,1,22,0,0,32,0,0,0
531530.89,3144642.30,1.91,2,225648.378657,9,297,1,1,22,0,0,32,0,0,0
531531.43,3144642.10,1.92,1,225648.378671,9,297,1,1,22,0,0,32,0,0,0
531531.96,3144641.90,1.94,1,225648.378685,9,281,1,1,22,0,0,32,0,0,0
531532.50,3144641.70,1.95,1,225648.378699,9,296,1,1,22,0,0,32,0,0,0
531533.42,3144641.44,4.96,1,225648.378713,9,142,2,1,22,0,0,32,0,0,0
531533.01,3144641.51,1.79,1,225648.378713,9,116,2,2,22,0,0,32,0,0,0
531533.98,3144641.24,5.20,1,225648.378727,9,147,1,1,22,0,0,32,0,0,0
531534.54,3144641.04,5.45,2,225648.378741,9,145,1,1,22,0,0,32,0,0,0
531535.10,3144640.84,5.69,2,225648.378755,9,140,1,1,22,0,0,32,0,0,0
531535.66,3144640.63,5.97,2,225648.378769,9,156,1,1,22,0,0,32,0,0,0
531536.22,3144640.43,6.20,2,225648.378783,9,145,1,1,22,0,0,32,0,0,0
531536.75,3144640.23,6.22,2,225648.378797,9,123,1,1,22,0,0,32,0,0,0
531537.28,3144640.04,6.20,2,225648.378811,8,144,1,1,22,0,0,32,0,0,0
531537.81,3144639.84,6.21,2,225648.378825,8,157,1,1,22,0,0,32,0,0,0
531538.33,3144639.64,6.15,2,225648.378839,8,153,1,1,22,0,0,32,0,0,0
531538.85,3144639.45,6.18,2,225648.378853,8,158,1,1,22,0,0,32,0,0,0
531539.37,3144639.25,6.12,2,225648.378867,8,145,1,1,22,0,0,32,0,0,0
531539.91,3144639.05,6.16,2,225648.378881,8,136,1,1,22,0,0,32,0,0,0
531540.43,3144638.86,6.13,2,225648.378895,8,139,1,1,22,0,0,32,0,0,0
531540.97,3144638.66,6.17,2,225648.378909,8,149,1,1,22,0,0,32,0,0,0
531541.49,3144638.46,6.10,2,225648.378923,8,151,1,1,22,0,0,32,0,0,0
531542.01,3144638.27,6.08,2,225648.378937,8,148,1,1,22,0,0,32,0,0,0
531542.54,3144638.07,6.10,2,225648.378951,8,142,1,1,22,0,0,32,0,0,0
531543.06,3144637.88,6.08,2,225648.378965,8,147,1,1,22,0,0,32,0,0,0
531543.59,3144637.68,6.07,2,225648.378979,8,139,1,1,22,0,0,32,0,0,0
531544.11,3144637.48,6.05,2,225648.378993,8,147,1,1,22,0,0,32,0,0,0
531544.64,3144637.29,6.07,2,225648.379007,8,142,1,1,22,0,0,32,0,0,0
531545.17,3144637.09,6.05,2,225648.379021,8,142,1,1,22,0,0,32,0,0,0
531545.69,3144636.89,6.01,2,225648.379035,8,122,1,1,22,0,0,32,0,0,0
531546.22,3144636.70,6.02,2,225648.379049,8,135,1,1,22,0,0,32,0,0,0
531546.74,3144636.50,6.06,2,225648.379063,8,142,1,1,22,0,0,32,0,0,0
531547.27,3144636.31,6.02,2,225648.379077,8,148,1,1,22,0,0,32,0,0,0
531547.78,3144636.11,5.97,1,225648.379091,7,135,1,1,22,0,0,32,0,0,0
531548.28,3144635.92,5.73,1,225648.379105,7,122,1,1,22,0,0,32,0,0,0
531548.79,3144635.73,5.52,1,225648.379119,7,145,1,1,22,0,0,32,0,0,0
531549.29,3144635.53,5.28,1,225648.379133,7,138,1,1,22,0,0,32,0,0,0
531549.79,3144635.34,5.07,1,225648.379147,7,144,1,1,22,0,0,32,0,0,0
531549.99,3144635.18,1.91,2,225648.379161,7,279,1,1,22,0,0,32,0,0,0
531550.52,3144634.98,1.88,2,225648.379175,7,263,1,1,22,0,0,32,0,0,0
531551.05,3144634.79,1.85,2,225648.379189,7,263,1,1,22,0,0,32,0,0,0
531551.57,3144634.59,1.82,2,225648.379203,7,263,1,1,22,0,0,32,0,0,0
531552.10,3144634.39,1.80,2,225648.379217,7,263,1,1,22,0,0,32,0,0,0
531552.62,3144634.20,1.79,2,225648.379231,7,263,1,1,22,0,0,32,0,0,0
531553.41,3144633.97,4.52,1,225648.379245,7,99,2,1,22,0,0,32,0,0,0
531553.13,3144634.00,1.65,2,225648.379245,7,131,2,2,22,0,0,32,0,0,0
531553.94,3144633.78,4.47,1,225648.379259,7,121,1,1,22,0,0,32,0,0,0
531554.45,3144633.58,4.36,1,225648.379273,7,88,2,1,22,0,0,32,0,0,0
531554.20,3144633.61,1.69,1,225648.379273,7,88,2,2,22,0,0,32,0,0,0
531555.13,3144633.37,5.89,1,225648.379287,7,183,1,1,22,0,0,32,0,0,0
531555.65,3144633.17,5.92,1,225648.379301,7,199,1,1,22,0,0,32,0,0,0
531556.09,3144632.99,4.95,1,225648.379315,7,168,1,1,22,0,0,32,0,0,0
531556.60,3144632.79,4.73,1,225648.379329,7,95,2,1,22,0,0,32,0,0,0
531556.31,3144632.82,1.70,2,225648.379329,7,77,2,2,22,0,0,32,0,0,0
531556.83,3144632.62,1.63,2,225648.379343,7,279,1,1,22,0,0,32,0,0,0
531557.36,3144632.43,1.67,2,225648.379357,7,232,1,1,22,0,0,32,0,0,0
531557.89,3144632.23,1.67,2,225648.379371,7,263,1,1,22,0,0,32,0,0,0
531558.42,3144632.03,1.69,2,225648.379385,6,247,1,1,22,0,0,32,0,0,0
531558.94,3144631.84,1.68,2,225648.379399,6,247,1,1,22,0,0,32,0,0,0
531559.46,3144631.64,1.65,2,225648.379413,6,247,1,1,22,0,0,32,0,0,0
531559.99,3144631.44,1.62,2,225648.379427,6,216,1,1,22,0,0,32,0,0,0
531560.50,3144631.25,1.49,2,225648.379441,6,185,1,1,22,0,0,32,0,0,0
531561.03,3144631.05,1.47,2,225648.379455,6,154,1,1,22,0,0,32,0,0,0
531561.56,3144630.86,1.51,2,225648.379469,6,154,1,1,22,0,0,32,0,0,0
531562.09,3144630.66,1.52,2,225648.379483,6,154,1,1,22,0,0,32,0,0,0
531562.62,3144630.46,1.55,2,225648.379497,6,139,1,1,22,0,0,32,0,0,0
531563.15,3144630.27,1.56,2,225648.379511,6,157,1,1,22,0,0,32,0,0,0
531563.67,3144630.07,1.56,2,225648.379525,6,154,1,1,22,0,0,32,0,0,0
531564.19,3144629.87,1.55,2,225648.379539,6,139,1,1,22,0,0,32,0,0,0
531564.72,3144629.68,1.56,2,225648.379553,6,160,1,1,22,0,0,32,0,0,0
531565.25,3144629.48,1.55,2,225648.379567,6,150,1,1,22,0,0,32,0,0,0
531565.77,3144629.28,1.49,2,225648.379581,6,157,1,1,22,0,0,32,0,0,0
531566.30,3144629.09,1.50,2,225648.379595,6,139,1,1,22,0,0,32,0,0,0
531566.83,3144628.89,1.47,2,225648.379609,6,123,1,1,22,0,0,32,0,0,0
531567.37,3144628.69,1.62,2,225648.379623,6,216,1,1,22,0,0,32,0,0,0
531567.89,3144628.50,1.66,2,225648.379637,6,262,1,1,22,0,0,32,0,0,0
531568.43,3144628.30,1.71,2,225648.379651,6,231,1,1,22,0,0,32,0,0,0
531568.96,3144628.10,1.74,2,225648.379665,6,247,1,1,22,0,0,32,0,0,0
531569.48,3144627.91,1.77,2,225648.379679,5,247,1,1,22,0,0,32,0,0,0
531570.01,3144627.71,1.71,2,225648.379693,5,200,1,1,22,0,0,32,0,0,0
531570.54,3144627.51,1.72,2,225648.379707,5,185,1,1,22,0,0,32,0,0,0
531571.07,3144627.32,1.81,2,225648.379721,5,247,1,1,22,0,0,32,0,0,0
531571.59,3144627.12,1.84,2,225648.379735,5,262,1,1,22,0,0,32,0,0,0
531572.12,3144626.93,1.84,2,225648.379749,5,277,1,1,22,0,0,32,0,0,0
531572.65,3144626.73,1.86,2,225648.379763,5,246,1,1,22,0,0,32,0,0,0
531573.17,3144626.53,1.86,2,225648.379777,5,262,1,1,22,0,0,32,0,0,0
531573.70,3144626.34,1.88,2,225648.379791,5,277,1,1,22,0,0,32,0,0,0
531574.23,3144626.14,1.88,2,225648.379805,5,246,1,1,22,0,0,32,0,0,0
531574.75,3144625.95,1.91,2,225648.379819,5,246,1,1,22,0,0,32,0,0,0
531575.27,3144625.75,1.89,2,225648.379833,5,200,1,1,22,0,0,32,0,0,0
531575.81,3144625.56,1.96,2,225648.379847,5,185,1,1,22,0,0,32,0,0,0
531576.45,3144625.37,3.85,1,225648.379861,5,260,1,1,22,0,0,32,0,0,0
531576.97,3144625.17,3.84,1,225648.379875,5,245,1,1,22,0,0,32,0,0,0
531577.50,3144624.98,3.97,1,225648.379889,5,153,1,1,22,0,0,32,0,0,0
531578.09,3144624.79,5.13,1,225648.379903,5,83,1,1,22,0,0,32,0,0,0
531578.63,3144624.59,5.42,1,225648.379917,5,89,1,1,22,0,0,32,0,0,0
531579.17,3144624.40,5.67,2,225648.379931,5,92,1,1,22,0,0,32,0,0,0
531579.71,3144624.21,5.95,2,225648.379945,5,85,1,1,22,0,0,32,0,0,0
531580.25,3144624.01,6.27,2,225648.379959,4,91,1,1,22,0,0,32,0,0,0
531580.78,3144623.82,6.44,2,225648.379973,4,91,1,1,22,0,0,32,0,0,0
531581.30,3144623.62,6.43,2,225648.379987,4,95,1,1,22,0,0,32,0,0,0
531581.82,3144623.43,6.40,2,225648.380001,4,89,1,1,22,0,0,32,0,0,0
531582.34,3144623.24,6.40,2,225648.380015,4,94,1,1,22,0,0,32,0,0,0
531582.86,3144623.04,6.40,2,225648.380029,4,95,1,1,22,0,0,32,0,0,0
531583.38,3144622.85,6.38,2,225648.380043,4,91,1,1,22,0,0,32,0,0,0
531583.90,3144622.65,6.37,2,225648.380057,4,79,1,1,22,0,0,32,0,0,0
531584.41,3144622.46,6.13,2,225648.380071,4,81,1,1,22,0,0,32,0,0,0
531584.92,3144622.26,5.88,2,225648.380085,4,97,1,1,22,0,0,32,0,0,0
531585.42,3144622.06,5.59,2,225648.380099,4,89,1,1,22,0,0,32,0,0,0
531585.94,3144621.87,5.50,2,225648.380113,4,89,1,1,22,0,0,32,0,0,0
531586.46,3144621.68,5.51,2,225648.380127,4,95,1,1,22,0,0,32,0,0,0
531586.98,3144621.48,5.46,2,225648.380141,4,86,1,1,22,0,0,32,0,0,0
531587.50,3144621.29,5.48,2,225648.380155,4,95,1,1,22,0,0,32,0,0,0
531588.02,3144621.09,5.46,1,225648.380169,4,97,1,1,22,0,0,32,0,0,0
531588.54,3144620.90,5.47,1,225648.380183,4,95,1,1,22,0,0,32,0,0,0
531589.06,3144620.70,5.41,1,225648.380197,4,111,1,1,22,0,0,32,0,0,0
531589.58,3144620.51,5.41,1,225648.380211,4,87,1,1,22,0,0,32,0,0,0
531590.10,3144620.32,5.42,1,225648.380225,4,98,1,1,22,0,0,32,0,0,0
531590.63,3144620.12,5.46,1,225648.380239,4,89,1,1,22,0,0,32,0,0,0
531591.15,3144619.93,5.41,1,225648.380253,3,95,1,1,22,0,0,32,0,0,0
531591.67,3144619.73,5.39,1,225648.380267,3,95,1,1,22,0,0,32,0,0,0
531592.19,3144619.54,5.37,1,225648.380281,3,94,1,1,22,0,0,32,0,0,0
531592.71,3144619.34,5.38,1,225648.380295,3,97,1,1,22,0,0,32,0,0,0
531593.23,3144619.15,5.35,1,225648.380309,3,92,1,1,22,0,0,32,0,0,0
531593.75,3144618.95,5.35,1,225648.380323,3,92,1,1,22,0,0,32,0,0,0
531594.27,3144618.76,5.33,1,225648.380337,3,84,1,1,22,0,0,32,0,0,0
531594.78,3144618.56,5.05,1,225648.380351,3,98,1,1,22,0,0,32,0,0,0
531595.19,3144618.32,1.87,2,225648.380365,3,261,1,1,22,0,0,32,0,0,0
531595.72,3144618.13,1.89,2,225648.380379,3,261,1,1,22,0,0,32,0,0,0
531596.24,3144617.93,1.85,2,225648.380393,3,246,1,1,22,0,0,32,0,0,0
531596.80,3144617.76,3.02,1,225648.380407,3,168,1,1,22,0,0,32,0,0,0
531597.32,3144617.56,3.18,1,225648.380421,3,245,1,1,22,0,0,32,0,0,0
531597.93,3144617.41,5.97,1,225648.380435,3,82,2,1,22,0,0,32,0,0,0
531597.80,3144617.35,1.69,2,225648.380435,3,117,2,2,22,0,0,32,0,0,0
531598.45,3144617.22,6.07,1,225648.380449,3,136,2,1,22,0,0,32,0,0,0
531598.33,3144617.15,1.63,2,225648.380449,3,29,2,2,22,0,0,32,0,0,0
531598.97,3144617.02,5.78,1,225648.380463,3,139,2,1,22,0,0,32,0,0,0
531598.85,3144616.96,1.72,2,225648.380463,3,27,2,2,22,0,0,32,0,0,0
531599.46,3144616.81,4.71,1,225648.380477,3,108,2,1,22,0,0,32,0,0,0
531599.38,3144616.76,2.02,1,225648.380477,3,74,2,2,22,0,0,32,0,0,0
531600.00,3144616.63,5.61,1,225648.380491,3,136,2,1,22,0,0,32,0,0,0
531599.90,3144616.57,1.68,2,225648.380491,3,25,2,2,22,0,0,32,0,0,0
531600.50,3144616.43,5.11,1,225648.380505,3,119,2,1,22,0,0,32,0,0,0
531600.42,3144616.37,1.79,1,225648.380505,3,101,2,2,22,0,0,32,0,0,0
531600.95,3144616.18,1.97,1,225648.380519,3,292,1,1,22,0,0,32,0,0,0
531601.47,3144615.99,1.98,2,225648.380533,2,261,1,1,22,0,0,32,0,0,0
531602.00,3144615.79,2.01,2,225648.380547,2,292,1,1,22,0,0,32,0,0,0
531601.75,3144615.22,5.15,1,225648.393651,2,24,2,1,22,0,1,32,0,0,0
531601.68,3144615.17,1.92,2,225648.393651,2,568,2,2,22,0,1,32,0,0,0
531601.24,3144615.42,5.16,1,225648.393665,2,60,2,1,22,0,1,32,0,0,0
531601.16,3144615.36,1.91,1,225648.393665,2,415,2,2,22,0,1,32,0,0,0
531600.72,3144615.61,5.18,1,225648.393679,3,117,2,1,22,0,1,32,0,0,0
531600.63,3144615.55,1.82,2,225648.393679,3,75,2,2,22,0,1,32,0,0,0
531600.20,3144615.81,5.41,1,225648.393693,3,136,2,1,22,0,1,32,0,0,0
531600.10,3144615.74,1.68,2,225648.393693,3,30,2,2,22,0,1,32,0,0,0
531599.67,3144615.99,5.10,1,225648.393707,3,118,1,1,22,0,1,32,0,0,0
531599.16,3144616.19,5.65,1,225648.393721,3,107,2,1,22,0,1,32,0,0,0
531599.09,3144616.15,2.90,1,225648.393721,3,55,2,2,22,0,1,32,0,0,0
531598.63,3144616.38,5.15,1,225648.393735,3,95,2,1,22,0,1,32,0,0,0
531598.53,3144616.33,1.82,2,225648.393735,3,95,2,2,22,0,1,32,0,0,0
531598.13,3144616.58,6.06,1,225648.393749,3,139,2,1,22,0,1,32,0,0,0
531598.01,3144616.52,1.68,2,225648.393749,3,51,2,2,22,0,1,32,0,0,0
531597.62,3144616.78,6.24,1,225648.393763,3,86,2,1,22,0,1,32,0,0,0
531597.48,3144616.71,1.67,2,225648.393763,3,157,2,2,22,0,1,32,0,0,0
531597.01,3144616.93,3.42,1,225648.393777,3,260,1,1,22,0,1,32,0,0,0
531596.47,3144617.11,2.66,1,225648.393791,3,153,1,1,22,0,1,32,0,0,0
531595.92,3144617.29,1.85,2,225648.393805,3,276,1,1,22,0,1,32,0,0,0
531594.86,3144617.68,1.92,1,225648.393833,3,307,1,1,22,0,1,32,0,0,0
531594.45,3144617.92,5.04,1,225648.393847,3,89,1,1,22,0,1,32,0,0,0
531593.94,3144618.11,5.32,1,225648.393861,3,97,1,1,22,0,1,32,0,0,0
531593.43,3144618.31,5.63,1,225648.393875,3,90,1,1,22,0,1,32,0,0,0
531592.91,3144618.50,5.68,1,225648.393889,3,91,1,1,22,0,1,32,0,0,0
531592.39,3144618.69,5.72,1,225648.393903,3,105,1,1,22,0,1,32,0,0,0
531591.87,3144618.89,5.70,1,225648.393917,3,101,1,1,22,0,1,32,0,0,0
531591.34,3144619.08,5.74,1,225648.393931,3,103,1,1,22,0,1,32,0,0,0
531590.82,3144619.27,5.76,1,225648.393945,3,97,1,1,22,0,1,32,0,0,0
531590.30,3144619.47,5.74,1,225648.393959,4,88,1,1,22,0,1,32,0,0,0
531589.78,3144619.66,5.77,1,225648.393973,4,96,1,1,22,0,1,32,0,0,0
531589.26,3144619.85,5.80,1,225648.393987,4,96,1,1,22,0,1,32,0,0,0
531588.74,3144620.04,5.81,1,225648.394001,4,101,1,1,22,0,1,32,0,0,0
531588.22,3144620.24,5.78,1,225648.394015,4,97,1,1,22,0,1,32,0,0,0
531587.69,3144620.43,5.83,2,225648.394029,4,95,1,1,22,0,1,32,0,0,0
531587.17,3144620.62,5.82,2,225648.394043,4,92,1,1,22,0,1,32,0,0,0
531586.13,3144621.01,5.83,2,225648.394071,4,103,1,1,22,0,1,32,0,0,0
531585.62,3144621.20,5.88,2,225648.394085,4,89,1,1,22,0,1,32,0,0,0
